173.048 105.552 -351.771
173.048 105.552 -351.771
206.441 125.951 -420.048
206.441 125.951 -420.048
-186.294 109.908 380.848
-186.294 109.908 380.848
-4.756 3.190 13.759
-3.153 -2.435 10.537
-3.235 -1.782 11.001
-3.117 -1.935 10.717
-3.117 -1.935 10.717
-3.223 -1.871 11.118
-3.200 -1.864 11.058
-3.181 -1.562 11.078
-3.175 -1.888 11.063
-3.225 -1.288 11.288
-3.180 -1.385 11.175
-3.052 -1.436 11.279
-2.984 -1.128 11.094
-2.984 -1.128 11.094
-3.110 0.547 11.672
-3.105 0.483 11.658
-3.478 3.154 13.167
-2.899 -1.879 10.983
-2.904 -1.908 11.137
-2.895 -1.905 11.111
-2.886 -1.834 11.094
-2.885 -1.635 11.127
-2.976 0.577 11.610
-2.864 -1.541 11.176
-2.934 0.324 11.499
-2.831 -1.991 11.120
-3.231 3.595 12.771
-2.893 -0.258 11.486
-2.863 0.363 11.421
-2.863 0.363 11.421
-2.754 -1.818 11.030
-2.908 0.948 11.723
-2.769 -0.415 11.446
-2.806 0.291 11.646
-2.767 -0.102 11.526
-2.600 -1.291 10.877
-2.759 0.004 11.554
-2.758 0.075 11.593
-3.012 3.357 12.774
-2.567 -0.787 10.890
-2.747 0.169 11.661
-2.707 0.159 11.538
-2.707 0.159 11.538
-2.531 -1.279 10.804
-2.572 0.399 11.074
-2.421 -0.756 10.446
-2.674 -0.119 11.625
-2.556 -0.621 11.144
-2.556 -0.621 11.144
-2.645 0.031 11.655
-2.521 -2.187 11.124
-2.672 1.174 11.815
-2.600 -0.272 11.590
-2.406 0.711 10.902
-2.498 -2.654 11.322
-2.422 1.322 11.320
-2.422 1.322 11.320
-2.421 -0.446 11.890
-2.001 -0.751 9.892
-2.296 -2.748 11.476
-2.295 -2.911 11.490
-1.962 -0.731 9.851
-2.056 1.111 10.591
-1.770 -0.606 9.653
-2.136 -2.642 11.667
-1.730 1.120 10.307
-1.956 -2.235 11.971
-1.982 -1.415 12.157
-1.765 1.780 11.087
-1.904 -1.435 12.266
-1.792 -2.275 12.110
-1.497 0.640 10.674
-1.497 0.640 10.674
-1.392 -0.759 10.065
-1.809 -2.141 13.363
-1.174 0.999 9.563
-1.332 -0.633 10.898
-1.145 1.145 9.400
-1.132 1.612 9.567
-1.101 1.089 9.345
-1.152 2.818 9.958
-0.957 0.418 9.015
-1.032 2.856 9.764
-1.017 2.458 9.786
-1.340 -1.883 13.238
-0.911 0.966 9.223
-0.892 0.704 9.065
-0.953 2.478 9.756
-0.894 0.942 9.192
-0.874 0.498 9.068
-0.926 2.548 9.667
-0.905 2.288 9.551
-0.860 1.097 9.093
-0.856 1.121 9.163
-0.822 0.013 8.818
-0.831 0.362 8.949
-0.818 0.793 9.044
-0.816 0.974 9.156
-0.804 1.163 9.061
-0.793 0.580 8.992
-1.155 -1.754 13.216
-0.794 0.611 9.096
-1.112 -2.433 12.923
-1.111 -1.681 13.031
-0.772 1.273 9.092
-1.084 -2.468 12.850
-1.081 -2.463 12.829
-1.114 -1.028 13.381
-1.063 -2.497 12.833
-1.063 -2.494 12.830
-1.064 -2.422 13.014
-1.087 -1.319 13.311
-0.745 1.150 9.124
-1.026 -1.373 13.263
-0.698 0.932 9.110
-0.993 -1.886 13.049
-0.724 2.228 9.580
-0.960 -2.623 12.851
-0.959 -2.621 12.844
-0.959 -2.033 12.930
-0.670 0.565 9.086
-0.984 -1.290 13.441
-0.945 -1.919 12.929
-0.967 -0.835 13.233
-0.945 -2.482 12.975
-0.957 -1.448 13.197
-0.659 0.507 9.148
-0.622 0.234 8.671
-0.914 -2.493 12.956
-0.913 -2.450 12.988
-0.919 -1.809 13.113
-0.901 -2.929 12.957
-0.646 0.952 9.299
-0.673 2.470 9.790
0.458 -0.064 -6.617
-0.623 0.359 9.084
-0.883 -2.505 13.038
-0.568 -0.022 8.450
-0.617 0.987 9.264
-0.613 1.015 9.214
-0.868 -2.189 13.083
-0.611 0.913 9.326
-0.597 1.090 9.217
-0.593 0.733 9.167
-0.625 2.205 9.705
-0.594 1.149 9.249
-0.850 -2.173 13.257
-0.586 0.985 9.303
-0.581 1.121 9.248
-0.809 -2.552 12.928
-0.827 -1.802 13.254
-0.613 2.920 9.974
-0.589 2.109 9.653
-0.565 1.098 9.290
-0.507 -0.002 8.428
-0.561 1.409 9.345
-0.580 2.159 9.672
-0.549 1.090 9.361
-0.515 1.291 9.352
-0.708 -2.330 13.036
-0.708 -2.330 13.036
0.127 -0.536 -2.321
-0.504 2.054 9.571
-0.685 -2.589 13.125
-0.673 -2.609 13.131
-0.462 1.166 9.355
-0.612 -2.641 13.161
-0.478 0.608 10.719
-0.579 -2.679 13.135
-0.406 1.200 9.408
-0.548 -2.740 13.143
-0.544 -2.936 13.136
-0.537 -2.810 13.160
-0.510 -1.814 12.703
-0.440 0.516 10.978
-0.518 -1.822 12.978
-0.396 -2.211 14.858
0.061 -0.181 12.987
0.056 0.955 9.718
0.081 -1.603 12.383
0.577 -1.410 12.021
0.882 2.997 14.089
0.517 0.880 8.103
0.574 0.642 8.007
0.898 -1.255 11.784
1.596 2.575 19.252
1.017 -1.095 11.796
0.762 0.740 7.738
0.826 0.317 8.337
0.785 0.749 7.725
0.862 0.287 8.386
0.862 0.287 8.386
1.212 -1.185 11.615
1.185 -0.436 11.140
1.242 -1.206 11.615
1.345 -1.207 11.759
1.479 2.215 12.844
1.044 0.280 8.318
1.552 -0.095 11.700
1.105 0.215 8.266
1.134 0.267 8.299
1.565 -1.112 11.419
1.612 -0.682 11.624
1.617 -0.633 11.594
1.622 -0.897 11.616
1.622 -0.897 11.616
1.613 -0.594 11.546
1.619 -0.475 11.551
1.639 -0.239 11.695
1.617 -0.891 11.531
1.617 -0.891 11.531
1.168 0.203 8.283
1.638 -0.664 11.578
1.642 -0.639 11.585
-3.306 -2.587 -23.201
1.186 0.368 8.206
1.683 -0.421 11.580
1.672 -0.710 11.410
2.330 -1.512 15.703
1.744 -0.802 11.345
1.793 -0.345 11.444
1.791 -0.516 11.427
1.785 -0.642 11.385
1.803 -0.364 11.493
1.795 -0.624 11.435
1.294 0.345 8.165
1.310 0.320 8.133
1.321 0.188 8.104
1.328 0.245 8.135
1.305 0.670 7.903
1.305 0.670 7.903
-8.339 2.026 -49.757
1.945 -0.362 11.603
1.372 0.356 8.165
1.372 0.356 8.165
1.368 0.335 8.129
1.896 -0.801 11.230
1.977 -0.401 11.629
1.969 -0.639 11.546
1.969 -0.639 11.546
1.391 0.209 8.104
1.420 0.321 8.144
1.992 -0.635 11.415
1.992 -0.635 11.415
5.177 3.205 29.657
1.439 0.344 8.158
1.430 0.475 8.068
1.498 0.294 8.287
0.609 -0.425 3.227
2.135 -0.150 11.430
2.135 -0.150 11.430
1.340 0.926 7.132
21.204 2.150 112.690
2.106 -0.985 11.047
1.587 0.305 8.305
2.161 -0.645 11.113
2.161 -0.645 11.113
2.150 -0.937 11.027
2.177 -0.961 11.122
1.628 0.278 8.300
1.628 0.285 8.295
1.627 0.240 8.279
2.283 -0.394 11.550
2.194 -0.661 11.080
2.198 -0.918 11.007
30.348 2.885 151.835
1.683 0.275 8.305
2.230 -0.861 11.004
28.923 1.531 142.462
39.274 4.812 193.008
1.686 0.255 8.287
1.686 0.255 8.279
2.251 -0.822 11.020
3.333 0.782 16.180
1.464 1.012 6.994
1.895 -0.165 8.955
1.905 -0.393 8.892
1.903 -0.370 8.876
1.918 -0.159 8.932
2.439 -0.743 11.295
1.795 0.155 8.218
1.960 -0.414 8.864
1.823 0.393 8.188
1.989 -0.203 8.931
1.986 -0.348 8.890
1.993 -0.157 8.921
1.986 -0.389 8.870
2.007 -0.237 8.918
1.816 0.342 8.045
2.013 -0.246 8.915
2.019 -0.255 8.918
1.852 0.313 8.038
1.862 0.351 8.040
1.761 1.902 7.597
1.909 0.384 8.068
1.911 0.342 8.065
1.885 0.448 7.947
1.789 0.579 7.489
1.947 0.385 8.068
1.946 0.384 8.058
3.952 -4.303 16.229
1.927 0.494 7.782
2.025 0.382 8.117
1.626 0.169 6.448
2.373 -0.070 9.364
2.381 -0.110 9.372
1.900 2.018 7.450
2.406 -0.102 9.385
2.605 0.422 10.134
1.724 1.060 6.722
3.912 -3.272 15.250
3.860 -2.867 14.882
2.109 0.399 8.079
4.454 -2.081 16.770
1.767 1.102 6.646
1.717 0.798 6.443
2.032 2.259 7.586
1.986 1.920 7.396
2.514 -0.128 9.359
1.996 0.611 7.415
-6.287 -0.693 -23.179
2.093 0.519 7.689
2.093 0.519 7.689
2.496 0.029 9.139
2.534 0.080 9.123
2.551 0.035 9.116
2.153 0.439 7.644
2.573 0.091 9.126
2.538 0.090 8.925
2.587 0.014 9.065
4.289 -3.585 14.951
2.050 0.655 7.130
2.455 2.529 8.495
2.716 -0.539 9.395
2.201 0.423 7.603
2.196 0.367 7.580
1.898 1.121 6.522
1.392 0.082 4.775
2.178 0.596 7.446
4.266 -3.798 14.575
4.246 -3.690 14.445
4.274 -3.682 14.459
4.312 -3.887 14.564
2.248 0.484 7.585
2.248 0.484 7.585
5.090 1.927 17.146
2.228 0.580 7.467
2.250 0.584 7.434
4.325 -3.981 14.234
2.378 0.491 7.710
2.533 0.158 8.199
2.002 1.394 6.480
2.552 0.160 8.178
2.615 0.284 8.233
4.495 -3.060 14.148
2.570 0.380 8.034
2.637 0.291 8.217
2.882 0.055 8.859
2.363 0.672 7.122
2.092 1.190 6.303
3.147 -0.144 9.475
3.147 -0.144 9.475
3.151 -0.336 9.440
2.370 0.726 7.095
2.128 1.441 6.314
3.209 -0.148 9.488
2.120 1.219 6.238
2.120 1.219 6.238
2.144 1.384 6.276
2.716 0.322 7.944
2.168 1.423 6.276
2.156 1.245 6.238
2.487 2.002 7.184
2.165 1.215 6.216
2.186 1.411 6.270
2.642 0.458 7.534
3.367 -0.079 9.457
2.223 1.228 6.241
2.223 1.228 6.241
2.473 0.752 6.930
2.473 0.752 6.930
4.135 -1.386 11.421
2.530 0.715 6.937
4.173 -1.603 11.386
4.174 -1.641 11.385
2.629 0.641 7.119
2.337 1.191 6.325
4.161 -1.487 11.259
1.658 0.480 4.483
1.658 0.480 4.483
4.206 -1.401 11.331
4.196 -1.333 11.270
4.160 -1.452 11.159
2.548 0.746 6.830
4.193 -1.586 11.213
4.193 -1.511 11.210
2.679 0.674 7.120
2.429 1.161 6.378
2.429 1.161 6.378
4.212 -1.499 11.055
2.592 0.825 6.800
2.751 0.683 7.167
2.469 1.154 6.422
0.774 0.130 1.705
2.843 0.668 7.221
2.562 1.130 6.498
2.937 0.524 7.378
4.234 -1.818 10.572
2.892 2.026 7.147
4.296 -1.716 10.595
2.736 1.361 6.727
2.777 0.808 6.799
4.349 -1.814 10.524
4.610 -2.626 11.105
4.436 -2.003 10.660
4.436 -2.003 10.660
2.912 1.630 6.995
2.820 1.370 6.764
4.611 -2.555 11.046
3.013 1.774 7.151
4.639 -2.672 10.872
4.662 -2.796 10.919
2.977 1.472 6.913
4.679 -2.739 10.779
3.010 0.681 6.912
3.133 2.002 7.178
3.028 0.755 6.931
3.058 0.746 6.924
3.175 2.012 7.190
3.112 0.687 7.028
3.182 1.755 7.171
3.175 0.681 7.087
3.189 0.639 7.082
3.600 0.388 7.964
3.196 0.720 7.069
4.737 -2.428 10.430
3.223 0.648 7.077
3.198 0.735 7.000
4.733 -2.709 10.347
4.726 -2.958 10.272
3.374 1.346 7.317
4.740 -3.025 10.193
4.944 -1.843 10.614
2.186 0.532 4.608
3.312 0.700 7.044
3.349 0.694 7.068
1.821 0.163 3.834
3.339 0.712 7.034
3.519 2.030 7.377
3.374 0.600 7.040
3.497 1.915 7.289
3.520 1.964 7.332
5.285 -1.341 10.814
5.187 -1.854 10.610
3.789 0.583 7.729
3.789 0.583 7.729
3.860 0.451 7.849
3.629 1.712 7.339
3.629 1.712 7.339
3.816 1.225 7.668
3.690 0.609 7.377
3.674 1.517 7.320
3.751 1.796 7.439
3.629 0.779 7.176
3.792 0.663 7.469
3.686 0.864 7.237
4.217 0.065 8.269
3.894 0.182 7.579
3.743 0.784 7.252
3.725 0.739 7.198
3.987 0.511 7.693
3.759 0.764 7.226
4.004 0.473 7.653
4.029 1.409 7.637
4.203 0.367 7.941
5.598 -2.029 10.552
5.922 -0.861 11.029
4.292 0.450 7.973
5.756 -2.197 10.582
4.426 0.219 8.114
4.437 0.145 8.112
4.450 0.020 8.108
1.751 0.484 3.157
5.811 -2.082 10.477
5.910 -1.884 10.650
6.590 2.406 11.855
4.515 0.246 8.097
4.511 0.157 8.088
1.221 -0.011 2.176
5.943 -1.824 10.621
5.913 -2.058 10.557
4.642 0.789 8.281
4.632 0.837 8.261
4.541 0.363 8.098
4.633 0.786 8.260
1.827 0.489 3.222
